   8775.00000       850.000000       1500.00000    
   8775.00000       875.000000       1500.00000    
   8775.00000       900.000000       1500.00000    
   8775.00000       925.000000       1500.00000    
   8775.00000       950.000000       1500.00000    
   8775.00000       975.000000       1500.00000    
   8775.00000       1000.00000       1500.00000    
   8775.00000       1025.00000       1500.00000    
   8775.00000       1050.00000       1682.00000    
   8775.00000       1075.00000       1548.00000    
   8775.00000       1100.00000       1554.00000    
   8775.00000       1125.00000       1560.00000    
   8775.00000       1150.00000       1636.00000    
   8775.00000       1175.00000       1642.00000    
   8775.00000       1200.00000       1768.00000    
   8775.00000       1225.00000       1774.00000    
   8775.00000       1250.00000       1600.00000    
   8775.00000       1275.00000       1606.00000    
   8775.00000       1300.00000       1672.00000    
   8775.00000       1325.00000       2117.00000    
   8775.00000       1350.00000       2156.00000    
   8775.00000       1375.00000       2165.00000    
   8775.00000       1400.00000       2124.00000    
   8775.00000       1425.00000       2243.00000    
   8775.00000       1450.00000       2122.00000    
   8775.00000       1475.00000       2131.00000    
   8775.00000       1500.00000       2260.00000    
   8775.00000       1525.00000       2209.00000    
   8775.00000       1550.00000       2198.00000    
   8775.00000       1575.00000       2377.00000    
   8775.00000       1600.00000       2416.00000    
   8775.00000       1625.00000       2375.00000    
   8775.00000       1650.00000       2090.00000    
   8775.00000       1675.00000       2105.00000    
   8775.00000       1700.00000       2120.00000    
   8775.00000       1725.00000       2135.00000    
   8775.00000       1750.00000       2150.00000    
   8775.00000       1775.00000       2065.00000    
   8775.00000       1800.00000       2080.00000    
   8775.00000       1825.00000       2095.00000    
   8775.00000       1850.00000       2110.00000    
   8775.00000       1875.00000       2475.00000    
   8775.00000       1900.00000       2490.00000    
   8775.00000       1925.00000       2505.00000    
   8775.00000       1950.00000       2520.00000    
   8775.00000       1975.00000       2535.00000    
   8775.00000       2000.00000       2280.00000    
   8775.00000       2025.00000       2265.00000    
   8775.00000       2050.00000       2280.00000    
   8775.00000       2075.00000       2325.00000    
   8775.00000       2100.00000       2340.00000    
   8775.00000       2125.00000       2355.00000    
   8775.00000       2150.00000       2370.00000    
   8775.00000       2175.00000       2385.00000    
   8775.00000       2200.00000       2670.00000    
   8775.00000       2225.00000       2685.00000    
   8775.00000       2250.00000       2700.00000    
   8775.00000       2275.00000       2445.00000    
   8775.00000       2300.00000       2460.00000    
   8775.00000       2325.00000       2475.00000    
   8775.00000       2350.00000       2510.00000    
   8775.00000       2375.00000       3500.00000    
   8775.00000       2400.00000       3500.00000    
   8775.00000       2425.00000       3650.00000    
   8775.00000       2450.00000       3350.00000    
   8775.00000       2475.00000       3350.00000    
   8775.00000       2500.00000       3500.00000    
   8775.00000       2525.00000       3500.00000    
   8775.00000       2550.00000       3500.00000    
   8775.00000       2575.00000       2645.00000    
   8775.00000       2600.00000       2660.00000    
   8775.00000       2625.00000       2555.00000    
   8775.00000       2650.00000       2840.00000    
   8775.00000       2675.00000       2855.00000    
   8775.00000       2700.00000       2720.00000    
   8775.00000       2725.00000       2935.00000    
   8775.00000       2750.00000       2950.00000    
   8775.00000       2775.00000       2695.00000    
   8775.00000       2800.00000       2710.00000    
   8775.00000       2825.00000       2995.00000    
   8775.00000       2850.00000       3210.00000    
   8775.00000       2875.00000       3225.00000    
   8775.00000       2900.00000       3040.00000    
   8775.00000       2925.00000       4000.00000    
   8775.00000       2950.00000       4000.00000    
   8775.00000       2975.00000       4450.00000    
   8775.00000       3000.00000       4000.00000    
   8775.00000       3025.00000       3770.00000    
   8775.00000       3050.00000       3770.00000    
   8775.00000       3075.00000       4000.00000    
   8775.00000       3100.00000       4000.00000    
   8775.00000       3125.00000       4000.00000    
   8775.00000       3150.00000       4000.00000    
   8775.00000       3175.00000       5500.00000    
   8775.00000       3200.00000       5500.00000    
   8775.00000       3225.00000       5500.00000    
   8775.00000       3250.00000       5500.00000    
   8775.00000       3275.00000       5500.00000    
   8775.00000       3300.00000       5500.00000    
   8775.00000       3325.00000       3580.00000    
   8775.00000       3350.00000       3580.00000    
   8775.00000       3375.00000       3580.00000    
   8775.00000       3400.00000       3580.00000    
   8775.00000       3425.00000       3470.00000    
   8775.00000       3450.00000       3470.00000    
   8775.00000       3475.00000       3300.00000    
   8775.00000       3500.00000       3300.00000    
   8775.00000       3525.00000       3530.00000    
   8775.00000       3550.00000       3530.00000    
   8775.00000       3575.00000       3530.00000    
   8775.00000       3600.00000       4230.00000    
   8775.00000       3625.00000       4230.00000    
   8775.00000       3650.00000       4230.00000    
   8775.00000       3675.00000       4230.00000    
   8775.00000       3700.00000       4000.00000    
   8775.00000       3725.00000       4000.00000    
   8775.00000       3750.00000       4000.00000    
   8775.00000       3775.00000       4000.00000    
   8775.00000       3800.00000       3800.00000    
   8775.00000       3825.00000       3800.00000    
   8775.00000       3850.00000       4200.00000    
   8775.00000       3875.00000       4200.00000    
   8775.00000       3900.00000       3800.00000    
   8775.00000       3925.00000       3800.00000    
   8775.00000       3950.00000       4400.00000    
   8775.00000       3975.00000       4600.00000    
   8775.00000       4000.00000       4600.00000    
   8775.00000       4025.00000       4700.00000    
   8800.00000       0.00000000       1500.00000    
   8800.00000       25.0000000       1500.00000    
   8800.00000       50.0000000       1500.00000    
   8800.00000       75.0000000       1500.00000    
   8800.00000       100.000000       1500.00000    
   8800.00000       125.000000       1500.00000    
   8800.00000       150.000000       1500.00000    
   8800.00000       175.000000       1500.00000    
   8800.00000       200.000000       1500.00000    
   8800.00000       225.000000       1500.00000    
   8800.00000       250.000000       1500.00000    
   8800.00000       275.000000       1500.00000    
   8800.00000       300.000000       1500.00000    
   8800.00000       325.000000       1500.00000    
   8800.00000       350.000000       1500.00000    
   8800.00000       375.000000       1500.00000    
   8800.00000       400.000000       1500.00000    
   8800.00000       425.000000       1500.00000    
   8800.00000       450.000000       1500.00000    
   8800.00000       475.000000       1500.00000    
   8800.00000       500.000000       1500.00000    
   8800.00000       525.000000       1500.00000    
   8800.00000       550.000000       1500.00000    
   8800.00000       575.000000       1500.00000    
   8800.00000       600.000000       1500.00000    
   8800.00000       625.000000       1500.00000    
   8800.00000       650.000000       1500.00000    
   8800.00000       675.000000       1500.00000    
   8800.00000       700.000000       1500.00000    
   8800.00000       725.000000       1500.00000    
   8800.00000       750.000000       1500.00000    
   8800.00000       775.000000       1500.00000    
   8800.00000       800.000000       1500.00000    
   8800.00000       825.000000       1500.00000    
   8800.00000       850.000000       1500.00000    
   8800.00000       875.000000       1500.00000    
   8800.00000       900.000000       1500.00000    
   8800.00000       925.000000       1500.00000    
   8800.00000       950.000000       1500.00000    
   8800.00000       975.000000       1500.00000    
   8800.00000       1000.00000       1500.00000    
   8800.00000       1025.00000       1500.00000    
   8800.00000       1050.00000       1612.00000    
   8800.00000       1075.00000       1548.00000    
   8800.00000       1100.00000       1554.00000    
   8800.00000       1125.00000       1560.00000    
   8800.00000       1150.00000       1636.00000    
   8800.00000       1175.00000       1642.00000    
   8800.00000       1200.00000       1768.00000    
   8800.00000       1225.00000       1644.00000    
   8800.00000       1250.00000       1600.00000    
   8800.00000       1275.00000       1666.00000    
   8800.00000       1300.00000       2108.00000    
   8800.00000       1325.00000       2117.00000    
   8800.00000       1350.00000       2156.00000    
   8800.00000       1375.00000       2165.00000    
   8800.00000       1400.00000       2124.00000    
   8800.00000       1425.00000       2153.00000    
   8800.00000       1450.00000       2122.00000    
   8800.00000       1475.00000       2251.00000    
   8800.00000       1500.00000       2260.00000    
   8800.00000       1525.00000       2209.00000    
   8800.00000       1550.00000       2198.00000    
   8800.00000       1575.00000       2377.00000    
   8800.00000       1600.00000       2236.00000    
   8800.00000       1625.00000       2375.00000    
   8800.00000       1650.00000       2090.00000    
   8800.00000       1675.00000       2105.00000    
   8800.00000       1700.00000       2120.00000    
   8800.00000       1725.00000       2135.00000    
   8800.00000       1750.00000       2150.00000    
   8800.00000       1775.00000       2065.00000    
   8800.00000       1800.00000       2080.00000    
   8800.00000       1825.00000       2095.00000    
   8800.00000       1850.00000       2460.00000    
   8800.00000       1875.00000       2475.00000    
   8800.00000       1900.00000       2490.00000    
   8800.00000       1925.00000       2505.00000    
   8800.00000       1950.00000       2520.00000    
   8800.00000       1975.00000       2535.00000    
   8800.00000       2000.00000       2280.00000    
   8800.00000       2025.00000       2265.00000    
   8800.00000       2050.00000       2280.00000    
   8800.00000       2075.00000       2325.00000    
   8800.00000       2100.00000       2340.00000    
   8800.00000       2125.00000       2355.00000    
   8800.00000       2150.00000       2370.00000    
   8800.00000       2175.00000       2385.00000    
   8800.00000       2200.00000       2670.00000    
   8800.00000       2225.00000       2685.00000    
   8800.00000       2250.00000       2700.00000    
   8800.00000       2275.00000       2445.00000    
   8800.00000       2300.00000       2460.00000    
   8800.00000       2325.00000       2475.00000    
   8800.00000       2350.00000       2510.00000    
   8800.00000       2375.00000       3500.00000    
   8800.00000       2400.00000       3500.00000    
   8800.00000       2425.00000       3650.00000    
   8800.00000       2450.00000       3350.00000    
   8800.00000       2475.00000       3350.00000    
   8800.00000       2500.00000       3500.00000    
   8800.00000       2525.00000       3500.00000    
   8800.00000       2550.00000       3500.00000    
   8800.00000       2575.00000       2645.00000    
   8800.00000       2600.00000       2660.00000    
   8800.00000       2625.00000       2555.00000    
   8800.00000       2650.00000       2840.00000    
   8800.00000       2675.00000       2855.00000    
   8800.00000       2700.00000       2720.00000    
   8800.00000       2725.00000       2935.00000    
   8800.00000       2750.00000       2950.00000    
   8800.00000       2775.00000       2695.00000    
   8800.00000       2800.00000       2710.00000    
   8800.00000       2825.00000       2995.00000    
   8800.00000       2850.00000       3210.00000    
   8800.00000       2875.00000       3225.00000    
   8800.00000       2900.00000       3040.00000    
   8800.00000       2925.00000       4000.00000    
   8800.00000       2950.00000       4000.00000    
   8800.00000       2975.00000       4450.00000    
   8800.00000       3000.00000       4000.00000    
   8800.00000       3025.00000       3770.00000    
   8800.00000       3050.00000       3770.00000    
   8800.00000       3075.00000       4000.00000    
   8800.00000       3100.00000       4000.00000    
   8800.00000       3125.00000       4000.00000    
   8800.00000       3150.00000       4000.00000    
   8800.00000       3175.00000       5500.00000    
   8800.00000       3200.00000       5500.00000    
   8800.00000       3225.00000       5500.00000    
   8800.00000       3250.00000       5500.00000    
   8800.00000       3275.00000       5500.00000    
   8800.00000       3300.00000       5500.00000    
   8800.00000       3325.00000       3580.00000    
   8800.00000       3350.00000       3580.00000    
   8800.00000       3375.00000       3580.00000    
   8800.00000       3400.00000       3580.00000    
   8800.00000       3425.00000       3470.00000    
   8800.00000       3450.00000       3470.00000    
   8800.00000       3475.00000       3470.00000    
   8800.00000       3500.00000       3300.00000    
   8800.00000       3525.00000       3300.00000    
   8800.00000       3550.00000       3530.00000    
   8800.00000       3575.00000       3530.00000    
   8800.00000       3600.00000       4230.00000    
   8800.00000       3625.00000       4230.00000    
   8800.00000       3650.00000       4230.00000    
   8800.00000       3675.00000       4230.00000    
   8800.00000       3700.00000       4000.00000    
   8800.00000       3725.00000       4000.00000    
   8800.00000       3750.00000       4000.00000    
   8800.00000       3775.00000       4000.00000    
   8800.00000       3800.00000       3800.00000    
   8800.00000       3825.00000       3800.00000    
   8800.00000       3850.00000       4200.00000    
   8800.00000       3875.00000       4200.00000    
   8800.00000       3900.00000       4200.00000    
   8800.00000       3925.00000       3800.00000    
   8800.00000       3950.00000       3800.00000    
   8800.00000       3975.00000       4400.00000    
   8800.00000       4000.00000       4600.00000    
   8800.00000       4025.00000       4600.00000    
   8825.00000       0.00000000       1500.00000    
   8825.00000       25.0000000       1500.00000    
   8825.00000       50.0000000       1500.00000    
   8825.00000       75.0000000       1500.00000    
   8825.00000       100.000000       1500.00000    
   8825.00000       125.000000       1500.00000    
   8825.00000       150.000000       1500.00000    
   8825.00000       175.000000       1500.00000    
   8825.00000       200.000000       1500.00000    
   8825.00000       225.000000       1500.00000    
   8825.00000       250.000000       1500.00000    
   8825.00000       275.000000       1500.00000    
   8825.00000       300.000000       1500.00000    
   8825.00000       325.000000       1500.00000    
   8825.00000       350.000000       1500.00000    
   8825.00000       375.000000       1500.00000    
   8825.00000       400.000000       1500.00000    
   8825.00000       425.000000       1500.00000    
   8825.00000       450.000000       1500.00000    
   8825.00000       475.000000       1500.00000    
   8825.00000       500.000000       1500.00000    
   8825.00000       525.000000       1500.00000    
   8825.00000       550.000000       1500.00000    
   8825.00000       575.000000       1500.00000    
   8825.00000       600.000000       1500.00000    
   8825.00000       625.000000       1500.00000    
   8825.00000       650.000000       1500.00000    
   8825.00000       675.000000       1500.00000    
   8825.00000       700.000000       1500.00000    
   8825.00000       725.000000       1500.00000    
   8825.00000       750.000000       1500.00000    
   8825.00000       775.000000       1500.00000    
   8825.00000       800.000000       1500.00000    
   8825.00000       825.000000       1500.00000    
   8825.00000       850.000000       1500.00000    
   8825.00000       875.000000       1500.00000    
   8825.00000       900.000000       1500.00000    
   8825.00000       925.000000       1500.00000    
   8825.00000       950.000000       1500.00000    
   8825.00000       975.000000       1500.00000    
   8825.00000       1000.00000       1500.00000    
   8825.00000       1025.00000       1500.00000    
   8825.00000       1050.00000       1612.00000    
   8825.00000       1075.00000       1548.00000    
   8825.00000       1100.00000       1554.00000    
   8825.00000       1125.00000       1630.00000    
   8825.00000       1150.00000       1636.00000    
   8825.00000       1175.00000       1642.00000    
   8825.00000       1200.00000       1768.00000    
   8825.00000       1225.00000       1644.00000    
   8825.00000       1250.00000       1600.00000    
   8825.00000       1275.00000       1666.00000    
   8825.00000       1300.00000       2108.00000    
   8825.00000       1325.00000       2117.00000    
   8825.00000       1350.00000       2156.00000    
   8825.00000       1375.00000       2115.00000    
   8825.00000       1400.00000       2234.00000    
   8825.00000       1425.00000       2153.00000    
   8825.00000       1450.00000       2122.00000    
   8825.00000       1475.00000       2251.00000    
   8825.00000       1500.00000       2260.00000    
   8825.00000       1525.00000       2209.00000    
   8825.00000       1550.00000       2198.00000    
   8825.00000       1575.00000       2377.00000    
   8825.00000       1600.00000       2236.00000    
   8825.00000       1625.00000       2375.00000    
   8825.00000       1650.00000       2090.00000    
   8825.00000       1675.00000       2105.00000    
   8825.00000       1700.00000       2120.00000    
   8825.00000       1725.00000       2135.00000    
   8825.00000       1750.00000       2050.00000    
   8825.00000       1775.00000       2065.00000    
   8825.00000       1800.00000       2080.00000    
   8825.00000       1825.00000       2095.00000    
   8825.00000       1850.00000       2460.00000    
   8825.00000       1875.00000       2475.00000    
   8825.00000       1900.00000       2490.00000    
   8825.00000       1925.00000       2505.00000    
   8825.00000       1950.00000       2520.00000    
   8825.00000       1975.00000       2535.00000    
   8825.00000       2000.00000       2280.00000    
   8825.00000       2025.00000       2265.00000    
   8825.00000       2050.00000       2280.00000    
   8825.00000       2075.00000       2325.00000    
   8825.00000       2100.00000       2340.00000    
   8825.00000       2125.00000       2355.00000    
   8825.00000       2150.00000       2370.00000    
   8825.00000       2175.00000       2385.00000    
   8825.00000       2200.00000       2670.00000    
   8825.00000       2225.00000       2685.00000    
   8825.00000       2250.00000       2700.00000    
   8825.00000       2275.00000       2445.00000    
   8825.00000       2300.00000       2460.00000    
   8825.00000       2325.00000       2475.00000    
   8825.00000       2350.00000       2510.00000    
   8825.00000       2375.00000       3500.00000    
   8825.00000       2400.00000       3500.00000    
   8825.00000       2425.00000       3650.00000    
   8825.00000       2450.00000       3350.00000    
   8825.00000       2475.00000       3350.00000    
   8825.00000       2500.00000       3500.00000    
   8825.00000       2525.00000       3500.00000    
   8825.00000       2550.00000       3500.00000    
   8825.00000       2575.00000       2645.00000    
   8825.00000       2600.00000       2660.00000    
   8825.00000       2625.00000       2555.00000    
   8825.00000       2650.00000       2840.00000    
   8825.00000       2675.00000       2855.00000    
   8825.00000       2700.00000       2720.00000    
   8825.00000       2725.00000       2935.00000    
   8825.00000       2750.00000       2950.00000    
   8825.00000       2775.00000       2695.00000    
   8825.00000       2800.00000       2710.00000    
   8825.00000       2825.00000       2995.00000    
   8825.00000       2850.00000       3210.00000    
   8825.00000       2875.00000       3225.00000    
   8825.00000       2900.00000       3040.00000    
   8825.00000       2925.00000       4000.00000    
   8825.00000       2950.00000       4000.00000    
   8825.00000       2975.00000       4450.00000    
   8825.00000       3000.00000       4000.00000    
   8825.00000       3025.00000       3770.00000    
   8825.00000       3050.00000       3770.00000    
   8825.00000       3075.00000       4000.00000    
   8825.00000       3100.00000       4000.00000    
   8825.00000       3125.00000       4000.00000    
   8825.00000       3150.00000       4000.00000    
   8825.00000       3175.00000       5500.00000    
   8825.00000       3200.00000       5500.00000    
   8825.00000       3225.00000       5500.00000    
   8825.00000       3250.00000       5500.00000    
   8825.00000       3275.00000       5500.00000    
   8825.00000       3300.00000       5500.00000    
   8825.00000       3325.00000       3580.00000    
   8825.00000       3350.00000       3580.00000    
   8825.00000       3375.00000       3580.00000    
   8825.00000       3400.00000       3580.00000    
   8825.00000       3425.00000       3470.00000    
   8825.00000       3450.00000       3470.00000    
   8825.00000       3475.00000       3470.00000    
   8825.00000       3500.00000       3300.00000    
   8825.00000       3525.00000       3300.00000    
   8825.00000       3550.00000       3530.00000    
   8825.00000       3575.00000       3530.00000    
   8825.00000       3600.00000       3530.00000    
   8825.00000       3625.00000       4230.00000    
   8825.00000       3650.00000       4230.00000    
   8825.00000       3675.00000       4230.00000    
   8825.00000       3700.00000       4000.00000    
   8825.00000       3725.00000       4000.00000    
   8825.00000       3750.00000       4000.00000    
   8825.00000       3775.00000       4000.00000    
   8825.00000       3800.00000       3800.00000    
   8825.00000       3825.00000       3800.00000    
   8825.00000       3850.00000       3800.00000    
   8825.00000       3875.00000       4200.00000    
   8825.00000       3900.00000       4200.00000    
   8825.00000       3925.00000       3800.00000    
   8825.00000       3950.00000       3800.00000    
   8825.00000       3975.00000       4400.00000    
   8825.00000       4000.00000       4600.00000    
   8825.00000       4025.00000       4600.00000    
   8850.00000       0.00000000       1500.00000    
   8850.00000       25.0000000       1500.00000    
   8850.00000       50.0000000       1500.00000    
   8850.00000       75.0000000       1500.00000    
   8850.00000       100.000000       1500.00000    
   8850.00000       125.000000       1500.00000    
   8850.00000       150.000000       1500.00000    
   8850.00000       175.000000       1500.00000    
   8850.00000       200.000000       1500.00000    
   8850.00000       225.000000       1500.00000    
   8850.00000       250.000000       1500.00000    
   8850.00000       275.000000       1500.00000    
   8850.00000       300.000000       1500.00000    
   8850.00000       325.000000       1500.00000    
   8850.00000       350.000000       1500.00000    
   8850.00000       375.000000       1500.00000    
   8850.00000       400.000000       1500.00000    
   8850.00000       425.000000       1500.00000    
   8850.00000       450.000000       1500.00000    
   8850.00000       475.000000       1500.00000    
   8850.00000       500.000000       1500.00000    
   8850.00000       525.000000       1500.00000    
   8850.00000       550.000000       1500.00000    
   8850.00000       575.000000       1500.00000    
   8850.00000       600.000000       1500.00000    
   8850.00000       625.000000       1500.00000    
   8850.00000       650.000000       1500.00000    
   8850.00000       675.000000       1500.00000    
   8850.00000       700.000000       1500.00000    
   8850.00000       725.000000       1500.00000    
   8850.00000       750.000000       1500.00000    
   8850.00000       775.000000       1500.00000    
   8850.00000       800.000000       1500.00000    
   8850.00000       825.000000       1500.00000    
   8850.00000       850.000000       1500.00000    
   8850.00000       875.000000       1500.00000    
   8850.00000       900.000000       1500.00000    
   8850.00000       925.000000       1500.00000    
   8850.00000       950.000000       1500.00000    
   8850.00000       975.000000       1500.00000    
   8850.00000       1000.00000       1500.00000    
   8850.00000       1025.00000       1500.00000    
   8850.00000       1050.00000       1612.00000    
   8850.00000       1075.00000       1548.00000    
   8850.00000       1100.00000       1554.00000    
   8850.00000       1125.00000       1630.00000    
   8850.00000       1150.00000       1636.00000    
   8850.00000       1175.00000       1642.00000    
   8850.00000       1200.00000       1768.00000    
   8850.00000       1225.00000       1644.00000    
   8850.00000       1250.00000       1600.00000    
   8850.00000       1275.00000       1666.00000    
   8850.00000       1300.00000       2108.00000    
   8850.00000       1325.00000       2147.00000    
   8850.00000       1350.00000       2156.00000    
   8850.00000       1375.00000       2115.00000    
   8850.00000       1400.00000       2234.00000    
   8850.00000       1425.00000       2113.00000    
   8850.00000       1450.00000       2122.00000    
   8850.00000       1475.00000       2251.00000    
   8850.00000       1500.00000       2260.00000    
   8850.00000       1525.00000       2159.00000    
   8850.00000       1550.00000       2198.00000    
   8850.00000       1575.00000       2377.00000    
   8850.00000       1600.00000       2236.00000    
   8850.00000       1625.00000       2075.00000    
   8850.00000       1650.00000       2090.00000    
   8850.00000       1675.00000       2105.00000    
   8850.00000       1700.00000       2120.00000    
   8850.00000       1725.00000       2135.00000    
   8850.00000       1750.00000       2050.00000    
   8850.00000       1775.00000       2065.00000    
   8850.00000       1800.00000       2080.00000    
   8850.00000       1825.00000       2095.00000    
   8850.00000       1850.00000       2460.00000    
   8850.00000       1875.00000       2475.00000    
   8850.00000       1900.00000       2490.00000    
   8850.00000       1925.00000       2505.00000    
   8850.00000       1950.00000       2520.00000    
   8850.00000       1975.00000       2265.00000    
   8850.00000       2000.00000       2280.00000    
   8850.00000       2025.00000       2265.00000    
   8850.00000       2050.00000       2280.00000    
   8850.00000       2075.00000       2325.00000    
   8850.00000       2100.00000       2340.00000    
   8850.00000       2125.00000       2355.00000    
   8850.00000       2150.00000       2370.00000    
   8850.00000       2175.00000       2385.00000    
   8850.00000       2200.00000       2670.00000    
   8850.00000       2225.00000       2685.00000    
   8850.00000       2250.00000       2700.00000    
   8850.00000       2275.00000       2445.00000    
   8850.00000       2300.00000       2460.00000    
   8850.00000       2325.00000       2475.00000    
   8850.00000       2350.00000       2510.00000    
   8850.00000       2375.00000       3500.00000    
   8850.00000       2400.00000       3500.00000    
   8850.00000       2425.00000       3650.00000    
   8850.00000       2450.00000       3350.00000    
   8850.00000       2475.00000       3350.00000    
   8850.00000       2500.00000       3500.00000    
   8850.00000       2525.00000       3500.00000    
   8850.00000       2550.00000       3500.00000    
   8850.00000       2575.00000       2645.00000    
   8850.00000       2600.00000       2660.00000    
   8850.00000       2625.00000       2555.00000    
   8850.00000       2650.00000       2840.00000    
   8850.00000       2675.00000       2855.00000    
   8850.00000       2700.00000       2720.00000    
   8850.00000       2725.00000       2935.00000    
   8850.00000       2750.00000       2950.00000    
   8850.00000       2775.00000       2695.00000    
   8850.00000       2800.00000       2710.00000    
   8850.00000       2825.00000       2995.00000    
   8850.00000       2850.00000       3210.00000    
   8850.00000       2875.00000       3225.00000    
   8850.00000       2900.00000       3040.00000    
   8850.00000       2925.00000       4000.00000    
   8850.00000       2950.00000       4000.00000    
   8850.00000       2975.00000       4450.00000    
   8850.00000       3000.00000       4000.00000    
   8850.00000       3025.00000       3770.00000    
   8850.00000       3050.00000       3770.00000    
   8850.00000       3075.00000       4000.00000    
   8850.00000       3100.00000       4000.00000    
   8850.00000       3125.00000       4000.00000    
   8850.00000       3150.00000       4000.00000    
   8850.00000       3175.00000       5500.00000    
   8850.00000       3200.00000       5500.00000    
   8850.00000       3225.00000       5500.00000    
   8850.00000       3250.00000       5500.00000    
   8850.00000       3275.00000       5500.00000    
   8850.00000       3300.00000       5500.00000    
   8850.00000       3325.00000       3580.00000    
   8850.00000       3350.00000       3580.00000    
   8850.00000       3375.00000       3580.00000    
   8850.00000       3400.00000       3580.00000    
   8850.00000       3425.00000       3470.00000    
   8850.00000       3450.00000       3470.00000    
   8850.00000       3475.00000       3470.00000    
   8850.00000       3500.00000       3300.00000    
   8850.00000       3525.00000       3300.00000    
   8850.00000       3550.00000       3530.00000    
   8850.00000       3575.00000       3530.00000    
   8850.00000       3600.00000       3530.00000    
   8850.00000       3625.00000       4230.00000    
   8850.00000       3650.00000       4230.00000    
   8850.00000       3675.00000       4230.00000    
   8850.00000       3700.00000       4230.00000    
   8850.00000       3725.00000       4000.00000    
   8850.00000       3750.00000       4000.00000    
   8850.00000       3775.00000       4000.00000    
   8850.00000       3800.00000       4000.00000    
   8850.00000       3825.00000       3800.00000    
   8850.00000       3850.00000       3800.00000    
   8850.00000       3875.00000       4200.00000    
   8850.00000       3900.00000       4200.00000    
   8850.00000       3925.00000       3800.00000    
   8850.00000       3950.00000       3800.00000    
   8850.00000       3975.00000       4400.00000    
   8850.00000       4000.00000       4600.00000    
   8850.00000       4025.00000       4600.00000    
   8875.00000       0.00000000       1500.00000    
   8875.00000       25.0000000       1500.00000    
   8875.00000       50.0000000       1500.00000    
   8875.00000       75.0000000       1500.00000    
   8875.00000       100.000000       1500.00000    
   8875.00000       125.000000       1500.00000    
   8875.00000       150.000000       1500.00000    
   8875.00000       175.000000       1500.00000    
   8875.00000       200.000000       1500.00000    
   8875.00000       225.000000       1500.00000    
   8875.00000       250.000000       1500.00000    
   8875.00000       275.000000       1500.00000    
   8875.00000       300.000000       1500.00000    
   8875.00000       325.000000       1500.00000    
   8875.00000       350.000000       1500.00000    
   8875.00000       375.000000       1500.00000    
   8875.00000       400.000000       1500.00000    
   8875.00000       425.000000       1500.00000    
   8875.00000       450.000000       1500.00000    
   8875.00000       475.000000       1500.00000    
   8875.00000       500.000000       1500.00000    
   8875.00000       525.000000       1500.00000    
   8875.00000       550.000000       1500.00000    
   8875.00000       575.000000       1500.00000    
   8875.00000       600.000000       1500.00000    
   8875.00000       625.000000       1500.00000    
   8875.00000       650.000000       1500.00000    
   8875.00000       675.000000       1500.00000    
   8875.00000       700.000000       1500.00000    
   8875.00000       725.000000       1500.00000    
   8875.00000       750.000000       1500.00000    
   8875.00000       775.000000       1500.00000    
   8875.00000       800.000000       1500.00000    
   8875.00000       825.000000       1500.00000    
   8875.00000       850.000000       1500.00000    
   8875.00000       875.000000       1500.00000    
   8875.00000       900.000000       1500.00000    
   8875.00000       925.000000       1500.00000    
   8875.00000       950.000000       1500.00000    
   8875.00000       975.000000       1500.00000    
   8875.00000       1000.00000       1500.00000    
   8875.00000       1025.00000       1500.00000    
   8875.00000       1050.00000       1612.00000    
   8875.00000       1075.00000       1548.00000    
   8875.00000       1100.00000       1554.00000    
   8875.00000       1125.00000       1630.00000    
   8875.00000       1150.00000       1636.00000    
   8875.00000       1175.00000       1762.00000    
   8875.00000       1200.00000       1638.00000    
   8875.00000       1225.00000       1594.00000    
   8875.00000       1250.00000       1600.00000    
   8875.00000       1275.00000       1666.00000    
   8875.00000       1300.00000       2108.00000    
   8875.00000       1325.00000       2147.00000    
   8875.00000       1350.00000       2156.00000    
   8875.00000       1375.00000       2115.00000    
   8875.00000       1400.00000       2234.00000    
   8875.00000       1425.00000       2113.00000    
   8875.00000       1450.00000       2122.00000    
   8875.00000       1475.00000       2251.00000    
   8875.00000       1500.00000       2200.00000    
   8875.00000       1525.00000       2159.00000    
   8875.00000       1550.00000       2198.00000    
   8875.00000       1575.00000       2377.00000    
   8875.00000       1600.00000       2336.00000    
   8875.00000       1625.00000       2075.00000    
   8875.00000       1650.00000       2090.00000    
   8875.00000       1675.00000       2105.00000    
   8875.00000       1700.00000       2120.00000    
   8875.00000       1725.00000       2135.00000    
   8875.00000       1750.00000       2050.00000    
   8875.00000       1775.00000       2065.00000    
   8875.00000       1800.00000       2080.00000    
   8875.00000       1825.00000       2095.00000    
   8875.00000       1850.00000       2460.00000    
   8875.00000       1875.00000       2475.00000    
   8875.00000       1900.00000       2490.00000    
   8875.00000       1925.00000       2505.00000    
   8875.00000       1950.00000       2520.00000    
   8875.00000       1975.00000       2265.00000    
   8875.00000       2000.00000       2280.00000    
   8875.00000       2025.00000       2265.00000    
   8875.00000       2050.00000       2280.00000    
   8875.00000       2075.00000       2325.00000    
   8875.00000       2100.00000       2340.00000    
   8875.00000       2125.00000       2355.00000    
   8875.00000       2150.00000       2370.00000    
   8875.00000       2175.00000       2385.00000    
   8875.00000       2200.00000       2670.00000    
   8875.00000       2225.00000       2685.00000    
   8875.00000       2250.00000       2700.00000    
   8875.00000       2275.00000       2445.00000    
   8875.00000       2300.00000       2460.00000    
   8875.00000       2325.00000       2495.00000    
   8875.00000       2350.00000       2510.00000    
   8875.00000       2375.00000       3500.00000    
   8875.00000       2400.00000       3500.00000    
   8875.00000       2425.00000       3650.00000    
   8875.00000       2450.00000       3350.00000    
   8875.00000       2475.00000       3500.00000    
   8875.00000       2500.00000       3500.00000    
   8875.00000       2525.00000       3500.00000    
   8875.00000       2550.00000       2630.00000    
   8875.00000       2575.00000       2645.00000    
   8875.00000       2600.00000       2660.00000    
   8875.00000       2625.00000       2555.00000    
   8875.00000       2650.00000       2840.00000    
   8875.00000       2675.00000       2855.00000    
   8875.00000       2700.00000       2720.00000    
   8875.00000       2725.00000       2935.00000    
   8875.00000       2750.00000       2950.00000    
   8875.00000       2775.00000       2695.00000    
   8875.00000       2800.00000       2710.00000    
   8875.00000       2825.00000       2995.00000    
   8875.00000       2850.00000       3210.00000    
   8875.00000       2875.00000       3225.00000    
   8875.00000       2900.00000       3040.00000    
   8875.00000       2925.00000       3055.00000    
   8875.00000       2950.00000       4000.00000    
   8875.00000       2975.00000       4450.00000    
   8875.00000       3000.00000       4000.00000    
   8875.00000       3025.00000       3770.00000    
   8875.00000       3050.00000       3770.00000    
   8875.00000       3075.00000       4000.00000    
   8875.00000       3100.00000       4000.00000    
   8875.00000       3125.00000       4000.00000    
   8875.00000       3150.00000       4000.00000    
   8875.00000       3175.00000       5500.00000    
   8875.00000       3200.00000       5500.00000    
   8875.00000       3225.00000       5500.00000    
   8875.00000       3250.00000       5500.00000    
   8875.00000       3275.00000       5500.00000    
   8875.00000       3300.00000       5500.00000    
   8875.00000       3325.00000       4670.00000    
   8875.00000       3350.00000       3580.00000    
   8875.00000       3375.00000       3580.00000    
   8875.00000       3400.00000       3580.00000    
   8875.00000       3425.00000       3580.00000    
   8875.00000       3450.00000       3470.00000    
   8875.00000       3475.00000       3470.00000    
   8875.00000       3500.00000       3470.00000    
   8875.00000       3525.00000       3300.00000    
   8875.00000       3550.00000       3530.00000    
   8875.00000       3575.00000       3530.00000    
   8875.00000       3600.00000       3530.00000    
   8875.00000       3625.00000       4230.00000    
   8875.00000       3650.00000       4230.00000    
   8875.00000       3675.00000       4230.00000    
   8875.00000       3700.00000       4230.00000    
   8875.00000       3725.00000       4000.00000    
   8875.00000       3750.00000       4000.00000    
   8875.00000       3775.00000       4000.00000    
   8875.00000       3800.00000       4000.00000    
   8875.00000       3825.00000       3800.00000    
   8875.00000       3850.00000       3800.00000    
   8875.00000       3875.00000       4200.00000    
   8875.00000       3900.00000       4200.00000    
   8875.00000       3925.00000       3800.00000    
   8875.00000       3950.00000       3800.00000    
   8875.00000       3975.00000       4400.00000    
   8875.00000       4000.00000       4600.00000    
   8875.00000       4025.00000       4600.00000    
   8900.00000       0.00000000       1500.00000    
   8900.00000       25.0000000       1500.00000    
   8900.00000       50.0000000       1500.00000    
   8900.00000       75.0000000       1500.00000    
   8900.00000       100.000000       1500.00000    
   8900.00000       125.000000       1500.00000    
   8900.00000       150.000000       1500.00000    
   8900.00000       175.000000       1500.00000    
   8900.00000       200.000000       1500.00000    
   8900.00000       225.000000       1500.00000    
   8900.00000       250.000000       1500.00000    
   8900.00000       275.000000       1500.00000    
   8900.00000       300.000000       1500.00000    
   8900.00000       325.000000       1500.00000    
   8900.00000       350.000000       1500.00000    
   8900.00000       375.000000       1500.00000    
   8900.00000       400.000000       1500.00000    
   8900.00000       425.000000       1500.00000    
   8900.00000       450.000000       1500.00000    
   8900.00000       475.000000       1500.00000    
   8900.00000       500.000000       1500.00000    
   8900.00000       525.000000       1500.00000    
   8900.00000       550.000000       1500.00000    
   8900.00000       575.000000       1500.00000    
   8900.00000       600.000000       1500.00000    
   8900.00000       625.000000       1500.00000    
   8900.00000       650.000000       1500.00000    
   8900.00000       675.000000       1500.00000    
   8900.00000       700.000000       1500.00000    
   8900.00000       725.000000       1500.00000    
   8900.00000       750.000000       1500.00000    
   8900.00000       775.000000       1500.00000    
   8900.00000       800.000000       1500.00000    
   8900.00000       825.000000       1500.00000    
   8900.00000       850.000000       1500.00000    
   8900.00000       875.000000       1500.00000    
   8900.00000       900.000000       1500.00000    
   8900.00000       925.000000       1500.00000    
   8900.00000       950.000000       1500.00000    
   8900.00000       975.000000       1500.00000    
   8900.00000       1000.00000       1500.00000    
   8900.00000       1025.00000       1500.00000    
   8900.00000       1050.00000       1612.00000    
   8900.00000       1075.00000       1548.00000    
   8900.00000       1100.00000       1624.00000    
   8900.00000       1125.00000       1630.00000    
   8900.00000       1150.00000       1636.00000    
   8900.00000       1175.00000       1762.00000    
   8900.00000       1200.00000       1638.00000    
   8900.00000       1225.00000       1594.00000    
   8900.00000       1250.00000       1660.00000    
   8900.00000       1275.00000       2099.00000    
   8900.00000       1300.00000       2108.00000    
   8900.00000       1325.00000       2147.00000    
   8900.00000       1350.00000       2156.00000    
   8900.00000       1375.00000       2115.00000    
   8900.00000       1400.00000       2144.00000    
   8900.00000       1425.00000       2113.00000    
   8900.00000       1450.00000       2242.00000    
   8900.00000       1475.00000       2251.00000    
   8900.00000       1500.00000       2200.00000    
   8900.00000       1525.00000       2159.00000    
   8900.00000       1550.00000       2338.00000    
   8900.00000       1575.00000       2197.00000    
   8900.00000       1600.00000       2336.00000    
   8900.00000       1625.00000       2075.00000    
   8900.00000       1650.00000       2090.00000    
   8900.00000       1675.00000       2105.00000    
   8900.00000       1700.00000       2120.00000    
   8900.00000       1725.00000       2135.00000    
   8900.00000       1750.00000       2050.00000    
   8900.00000       1775.00000       2065.00000    
   8900.00000       1800.00000       2080.00000    
   8900.00000       1825.00000       2095.00000    
   8900.00000       1850.00000       2460.00000    
   8900.00000       1875.00000       2475.00000    
   8900.00000       1900.00000       2490.00000    
   8900.00000       1925.00000       2505.00000    
   8900.00000       1950.00000       2520.00000    
   8900.00000       1975.00000       2265.00000    
   8900.00000       2000.00000       2280.00000    
   8900.00000       2025.00000       2265.00000    
   8900.00000       2050.00000       2280.00000    
   8900.00000       2075.00000       2325.00000    
   8900.00000       2100.00000       2340.00000    
   8900.00000       2125.00000       2355.00000    
   8900.00000       2150.00000       2370.00000    
   8900.00000       2175.00000       2385.00000    
   8900.00000       2200.00000       2670.00000    
   8900.00000       2225.00000       2685.00000    
   8900.00000       2250.00000       2700.00000    
   8900.00000       2275.00000       2445.00000    
   8900.00000       2300.00000       2460.00000    
   8900.00000       2325.00000       2495.00000    
   8900.00000       2350.00000       2510.00000    
   8900.00000       2375.00000       3500.00000    
   8900.00000       2400.00000       3650.00000    
   8900.00000       2425.00000       3650.00000    
   8900.00000       2450.00000       3350.00000    
   8900.00000       2475.00000       3500.00000    
   8900.00000       2500.00000       3500.00000    
   8900.00000       2525.00000       3500.00000    
   8900.00000       2550.00000       2630.00000    
   8900.00000       2575.00000       2645.00000    
   8900.00000       2600.00000       2660.00000    
   8900.00000       2625.00000       2555.00000    
   8900.00000       2650.00000       2840.00000    
   8900.00000       2675.00000       2705.00000    
   8900.00000       2700.00000       2720.00000    
   8900.00000       2725.00000       2935.00000    
   8900.00000       2750.00000       2750.00000    
   8900.00000       2775.00000       2695.00000    
   8900.00000       2800.00000       2780.00000    
   8900.00000       2825.00000       2995.00000    
   8900.00000       2850.00000       3210.00000    
   8900.00000       2875.00000       3225.00000    
   8900.00000       2900.00000       3040.00000    
   8900.00000       2925.00000       3055.00000    
   8900.00000       2950.00000       4000.00000    
   8900.00000       2975.00000       4450.00000    
   8900.00000       3000.00000       4000.00000    
   8900.00000       3025.00000       3770.00000    
   8900.00000       3050.00000       3770.00000    
   8900.00000       3075.00000       4000.00000    
   8900.00000       3100.00000       4000.00000    
   8900.00000       3125.00000       4000.00000    
   8900.00000       3150.00000       4000.00000    
   8900.00000       3175.00000       5500.00000    
   8900.00000       3200.00000       5500.00000    
   8900.00000       3225.00000       5500.00000    
   8900.00000       3250.00000       5500.00000    
   8900.00000       3275.00000       5500.00000    
   8900.00000       3300.00000       5500.00000    
   8900.00000       3325.00000       4670.00000    
   8900.00000       3350.00000       3580.00000    
   8900.00000       3375.00000       3580.00000    
   8900.00000       3400.00000       3580.00000    
   8900.00000       3425.00000       3580.00000    
   8900.00000       3450.00000       3470.00000    
   8900.00000       3475.00000       3470.00000    
   8900.00000       3500.00000       3470.00000    
   8900.00000       3525.00000       3300.00000    
   8900.00000       3550.00000       3300.00000    
   8900.00000       3575.00000       3530.00000    
   8900.00000       3600.00000       3530.00000    
   8900.00000       3625.00000       4230.00000    
   8900.00000       3650.00000       4230.00000    
